ply
format ascii 1.0
element vertex 1241
property float x
property float y
property float z
property uchar red
property uchar green
property uchar blue
end_header
2.187500 -2.750000 -9.600000 19 19 19 
2.375000 -2.750000 -9.600000 16 16 16 
2.437500 -2.750000 -9.600000 15 15 15 
2.500000 -2.750000 -9.600000 15 15 15 
2.562500 -2.750000 -9.600000 16 16 16 
2.625000 -2.750000 -9.600000 15 15 15 
2.687500 -2.750000 -9.600000 15 15 15 
2.882353 -2.588235 -9.035295 18 18 18 
2.877698 -2.532374 -8.840288 23 23 23 
2.935252 -2.532374 -8.840288 31 31 31 
2.950355 -2.496454 -8.714894 32 32 32 
2.934256 -2.435986 -8.503806 32 32 32 
2.958904 -2.410959 -8.416439 33 33 33 
3.013699 -2.410959 -8.416439 34 34 34 
3.068493 -2.410959 -8.416439 35 35 35 
3.123288 -2.410959 -8.416439 36 36 36 
3.178082 -2.410959 -8.416439 37 37 37 
3.232877 -2.410959 -8.416439 37 37 37 
3.310345 -2.427586 -8.474483 33 33 33 
3.377163 -2.435986 -8.503806 25 25 25 
3.444444 -2.444444 -8.533334 27 27 27 
3.500000 -2.444444 -8.533334 45 45 45 
3.555556 -2.444444 -8.533334 60 60 60 
3.611111 -2.444444 -8.533334 62 62 62 
1.187500 -2.812500 -9.600000 41 41 41 
1.250000 -2.812500 -9.600000 36 36 36 
1.312500 -2.812500 -9.600000 26 26 26 
1.375000 -2.812500 -9.600000 23 23 23 
1.437500 -2.812500 -9.600000 17 17 17 
1.500000 -2.812500 -9.600000 12 12 12 
1.562500 -2.812500 -9.600000 11 11 11 
1.625000 -2.812500 -9.600000 11 11 11 
1.687500 -2.812500 -9.600000 12 12 12 
1.750000 -2.812500 -9.600000 11 11 11 
0.264087 -0.409789 -1.398748 11 11 11 
0.272727 -0.409091 -1.396364 11 11 11 
0.281818 -0.409091 -1.396364 11 11 11 
0.290909 -0.409091 -1.396364 11 11 11 
2.062500 -2.812500 -9.600000 12 12 12 
2.125000 -2.812500 -9.600000 12 12 12 
2.437500 -2.812500 -9.600000 10 10 10 
2.500000 -2.812500 -9.600000 11 11 11 
2.562500 -2.812500 -9.600000 10 10 10 
3.007092 -2.553191 -8.714894 30 30 30 
2.989619 -2.491349 -8.503806 30 30 30 
3.013699 -2.465753 -8.416439 31 31 31 
3.079038 -2.474227 -8.445361 31 31 31 
3.134021 -2.474227 -8.445361 31 31 31 
3.189003 -2.474227 -8.445361 32 32 32 
3.243986 -2.474227 -8.445361 32 32 32 
3.321799 -2.491349 -8.503806 29 29 29 
1.312500 -2.875000 -9.600000 16 16 16 
1.375000 -2.875000 -9.600000 15 15 15 
1.437500 -2.875000 -9.600000 14 14 14 
1.500000 -2.875000 -9.600000 12 12 12 
1.562500 -2.875000 -9.600000 11 11 11 
0.238259 -0.421535 -1.407560 11 11 11 
0.246575 -0.420091 -1.402740 11 11 11 
0.255125 -0.419134 -1.399544 11 11 11 
0.264087 -0.418896 -1.398748 11 11 11 
0.272727 -0.418182 -1.396364 11 11 11 
0.281818 -0.418182 -1.396364 10 10 10 
0.290909 -0.418182 -1.396364 11 11 11 
0.300171 -0.418420 -1.397158 12 12 12 
0.202183 -0.431936 -1.411603 11 11 11 
0.211373 -0.431936 -1.411603 14 14 14 
0.220436 -0.431688 -1.410792 12 12 12 
0.229358 -0.431193 -1.409174 11 11 11 
0.237986 -0.430206 -1.405950 10 10 10 
0.246575 -0.429224 -1.402740 9 9 9 
0.255271 -0.428490 -1.400342 10 10 10 
0.264237 -0.428246 -1.399544 10 10 10 
0.273193 -0.428002 -1.398748 11 11 11 
0.282299 -0.428002 -1.398748 11 11 11 
0.291074 -0.427516 -1.397158 12 12 12 
0.300512 -0.428002 -1.398748 12 12 12 
0.309619 -0.428002 -1.398748 12 12 12 
0.318907 -0.428246 -1.399544 12 12 12 
0.328018 -0.428246 -1.399544 12 12 12 
1.515588 -0.901679 -2.946763 20 20 20 
1.532934 -0.900599 -2.943234 20 20 20 
1.550239 -0.899522 -2.939713 20 20 20 
0.192993 -0.441126 -1.411603 9 9 9 
0.202183 -0.441126 -1.411603 13 13 13 
0.211373 -0.441126 -1.411603 17 17 17 
0.220310 -0.440620 -1.409983 16 16 16 
0.229358 -0.440367 -1.409174 12 12 12 
0.238259 -0.439863 -1.407560 10 10 10 
0.247140 -0.439359 -1.405950 9 9 9 
0.255708 -0.438356 -1.402740 9 9 9 
0.264538 -0.437856 -1.401140 9 9 9 
0.273504 -0.437607 -1.400342 10 10 10 
0.282621 -0.437607 -1.400342 10 10 10 
0.291572 -0.437358 -1.399544 10 10 10 
0.300683 -0.437358 -1.399544 10 10 10 
0.309795 -0.437358 -1.399544 10 10 10 
0.318907 -0.437358 -1.399544 10 10 10 
0.328018 -0.437358 -1.399544 10 10 10 
0.337322 -0.437607 -1.400342 11 11 11 
1.494611 -0.919760 -2.943234 19 19 19 
1.511962 -0.918660 -2.939713 19 19 19 
1.529271 -0.917563 -2.936201 19 19 19 
1.548387 -0.917563 -2.936201 19 19 19 
1.565632 -0.916468 -2.932697 20 20 20 
1.582837 -0.915375 -2.929202 20 20 20 
1.603819 -0.916468 -2.932697 20 20 20 
1.624851 -0.917563 -2.936201 21 21 21 
1.643967 -0.917563 -2.936201 21 21 21 
1.663082 -0.917563 -2.936201 21 21 21 
1.682198 -0.917563 -2.936201 22 22 22 
1.701314 -0.917563 -2.936201 23 23 23 
1.720430 -0.917563 -2.936201 23 23 23 
1.739546 -0.917563 -2.936201 25 25 25 
1.758662 -0.917563 -2.936201 26 26 26 
1.777778 -0.917563 -2.936201 27 27 27 
1.796894 -0.917563 -2.936201 28 28 28 
0.192993 -0.450316 -1.411603 9 9 9 
0.202183 -0.450316 -1.411603 10 10 10 
0.211373 -0.450316 -1.411603 15 15 15 
0.220563 -0.450316 -1.411603 22 22 22 
0.229621 -0.450057 -1.410792 12 12 12 
0.238532 -0.449541 -1.409174 9 9 9 
0.247423 -0.449026 -1.407560 9 9 9 
0.256146 -0.448256 -1.405146 9 9 9 
0.264991 -0.447744 -1.403541 9 9 9 
0.273660 -0.446978 -1.401140 9 9 9 
0.282782 -0.446978 -1.401140 9 9 9 
0.291738 -0.446724 -1.400342 8 8 8 
0.301026 -0.446978 -1.401140 8 8 8 
0.309972 -0.446724 -1.400342 9 9 9 
0.319088 -0.446724 -1.400342 8 8 8 
0.328205 -0.446724 -1.400342 9 9 9 
0.337514 -0.446978 -1.401140 11 11 11 
0.555556 -0.453704 -1.422222 30 30 30 
0.564815 -0.453704 -1.422222 44 44 44 
0.574074 -0.453704 -1.422222 54 54 54 
0.582996 -0.453441 -1.421400 62 62 62 
0.592250 -0.453441 -1.421400 76 76 76 
1.494611 -0.938922 -2.943234 18 18 18 
1.511962 -0.937799 -2.939713 18 18 18 
1.529271 -0.936679 -2.936201 18 18 18 
1.546539 -0.935561 -2.932697 18 18 18 
1.561905 -0.933333 -2.925714 19 19 19 
1.579072 -0.932224 -2.922235 19 19 19 
1.601907 -0.934446 -2.929202 19 19 19 
1.620977 -0.934446 -2.929202 19 19 19 
1.642005 -0.935561 -2.932697 19 19 19 
1.661098 -0.935561 -2.932697 19 19 19 
1.680191 -0.935561 -2.932697 20 20 20 
1.699284 -0.935561 -2.932697 20 20 20 
1.718377 -0.935561 -2.932697 20 20 20 
1.735399 -0.934446 -2.929202 21 21 21 
1.756563 -0.935561 -2.932697 23 23 23 
1.775656 -0.935561 -2.932697 24 24 24 
1.794749 -0.935561 -2.932697 25 25 25 
1.816010 -0.936679 -2.936201 22 22 22 
0.192993 -0.459506 -1.411603 9 9 9 
0.202183 -0.459506 -1.411603 10 10 10 
0.211494 -0.459770 -1.412414 11 11 11 
0.220563 -0.459506 -1.411603 12 12 12 
0.229753 -0.459506 -1.411603 10 10 10 
0.238669 -0.458979 -1.409983 9 9 9 
0.247706 -0.458716 -1.409174 9 9 9 
0.256440 -0.457928 -1.406754 9 9 9 
0.265294 -0.457404 -1.405146 9 9 9 
0.274129 -0.456882 -1.403541 9 9 9 
0.283105 -0.456621 -1.402740 9 9 9 
0.291904 -0.456100 -1.401140 9 9 9 
0.301198 -0.456361 -1.401940 8 8 8 
0.310148 -0.456100 -1.401140 8 8 8 
0.319270 -0.456100 -1.401140 8 8 8 
0.328392 -0.456100 -1.401140 9 9 9 
0.337707 -0.456361 -1.401940 10 10 10 
0.537037 -0.462963 -1.422222 31 31 31 
0.546296 -0.462963 -1.422222 31 31 31 
0.554913 -0.462428 -1.420578 29 29 29 
0.564162 -0.462428 -1.420578 43 43 43 
0.573410 -0.462428 -1.420578 53 53 53 
0.582659 -0.462428 -1.420578 62 62 62 
0.591566 -0.462161 -1.419757 77 77 77 
0.600809 -0.462161 -1.419757 82 82 82 
1.511962 -0.956938 -2.939713 17 17 17 
1.527446 -0.954654 -2.932697 17 17 17 
1.542857 -0.952381 -2.925714 17 17 17 
1.558195 -0.950119 -2.918765 17 17 17 
1.575326 -0.948992 -2.915303 17 17 17 
1.596200 -0.950119 -2.918765 17 17 17 
1.617123 -0.951249 -2.922235 17 17 17 
1.640048 -0.953516 -2.929202 17 17 17 
1.655172 -0.951249 -2.922235 17 17 17 
1.674197 -0.951249 -2.922235 17 17 17 
1.693222 -0.951249 -2.922235 17 17 17 
1.710214 -0.950119 -2.918765 17 17 17 
1.729216 -0.950119 -2.918765 17 17 17 
1.748219 -0.950119 -2.918765 18 18 18 
1.767221 -0.950119 -2.918765 19 19 19 
1.786223 -0.950119 -2.918765 20 20 20 
1.805226 -0.950119 -2.918765 17 17 17 
0.192993 -0.468696 -1.411603 10 10 10 
0.202183 -0.468696 -1.411603 10 10 10 
0.211373 -0.468696 -1.411603 10 10 10 
0.220563 -0.468696 -1.411603 11 11 11 
0.229753 -0.468696 -1.411603 10 10 10 
0.238806 -0.468427 -1.410792 9 9 9 
0.247706 -0.467890 -1.409174 9 9 9 
0.256586 -0.467354 -1.407560 9 9 9 
0.265446 -0.466819 -1.405950 9 9 9 
0.274443 -0.466552 -1.405146 9 9 9 
0.283429 -0.466286 -1.404343 9 9 9 
0.292404 -0.466019 -1.403541 9 9 9 
0.301542 -0.466019 -1.403541 9 9 9 
0.310502 -0.465753 -1.402740 8 8 8 
0.319452 -0.465488 -1.401940 8 8 8 
0.328392 -0.465222 -1.401140 8 8 8 
0.337514 -0.465222 -1.401140 9 9 9 
0.518519 -0.472222 -1.422222 31 31 31 
0.527168 -0.471676 -1.420578 31 31 31 
0.536106 -0.471404 -1.419757 32 32 32 
0.545035 -0.471132 -1.418938 32 32 32 
0.554273 -0.471132 -1.418938 29 29 29 
0.563510 -0.471132 -1.418938 43 43 43 
0.572748 -0.471132 -1.418938 54 54 54 
0.581986 -0.471132 -1.418938 63 63 63 
0.590883 -0.470860 -1.418119 77 77 77 
0.599769 -0.470588 -1.417301 82 82 82 
0.609700 -0.471132 -1.418938 83 83 83 
1.523810 -0.971429 -2.925714 16 16 16 
1.539192 -0.969121 -2.918765 16 16 16 
1.554502 -0.966825 -2.911849 16 16 16 
1.571598 -0.965680 -2.908402 16 16 16 
1.592417 -0.966825 -2.911849 16 16 16 
1.613286 -0.967972 -2.915303 16 16 16 
1.634204 -0.969121 -2.918765 16 16 16 
1.651246 -0.967972 -2.915303 16 16 16 
1.670225 -0.967972 -2.915303 15 15 15 
1.689205 -0.967972 -2.915303 16 16 16 
1.706161 -0.966825 -2.911849 15 15 15 
1.725119 -0.966825 -2.911849 15 15 15 
1.744076 -0.966825 -2.911849 16 16 16 
1.763033 -0.966825 -2.911849 16 16 16 
1.781991 -0.966825 -2.911849 16 16 16 
1.800948 -0.966825 -2.911849 14 14 14 
0.183697 -0.477612 -1.410792 17 17 17 
0.192771 -0.477338 -1.409983 11 11 11 
0.202067 -0.477612 -1.410792 10 10 10 
0.211373 -0.477886 -1.411603 10 10 10 
0.220563 -0.477886 -1.411603 11 11 11 
0.229621 -0.477612 -1.410792 10 10 10 
0.238806 -0.477612 -1.410792 9 9 9 
0.247706 -0.477064 -1.409174 8 8 8 
0.256734 -0.476791 -1.408367 9 9 9 
0.265446 -0.475973 -1.405950 9 9 9 
0.274443 -0.475700 -1.405146 9 9 9 
0.283591 -0.475700 -1.405146 9 9 9 
0.292571 -0.475429 -1.404343 9 9 9 
0.301714 -0.475429 -1.404343 9 9 9 
0.310680 -0.475157 -1.403541 9 9 9 
0.319635 -0.474886 -1.402740 8 8 8 
0.328580 -0.474615 -1.401940 8 8 8 
0.337514 -0.474344 -1.401140 8 8 8 
0.346834 -0.474615 -1.401940 9 9 9 
0.397918 -0.481203 -1.421400 9 9 9 
0.407172 -0.481203 -1.421400 9 9 9 
0.416426 -0.481203 -1.421400 9 9 9 
0.425680 -0.481203 -1.421400 9 9 9 
0.435185 -0.481481 -1.422222 8 8 8 
0.444444 -0.481481 -1.422222 9 9 9 
0.453704 -0.481481 -1.422222 12 12 12 
0.462695 -0.481203 -1.421400 20 20 20 
0.471949 -0.481203 -1.421400 28 28 28 
0.481203 -0.481203 -1.421400 29 29 29 
0.509259 -0.481481 -1.422222 30 30 30 
0.517321 -0.480370 -1.418938 31 31 31 
0.525952 -0.479815 -1.417301 31 31 31 
0.534870 -0.479539 -1.416484 31 31 31 
0.543779 -0.479263 -1.415668 32 32 32 
0.553314 -0.479539 -1.416484 28 28 28 
0.562536 -0.479539 -1.416484 43 43 43 
0.571758 -0.479539 -1.416484 53 53 53 
0.580645 -0.479263 -1.415668 62 62 62 
0.589183 -0.478711 -1.414039 76 76 76 
0.598389 -0.478711 -1.414039 80 80 80 
0.608997 -0.479815 -1.417301 81 81 81 
1.149425 -0.796935 -2.354023 55 55 55 
1.163636 -0.796172 -2.351770 19 19 19 
1.178947 -0.796172 -2.351770 16 16 16 
1.520190 -0.988124 -2.918765 17 17 17 
1.533728 -0.984615 -2.908402 17 17 17 
1.550827 -0.983452 -2.904965 17 17 17 
1.569740 -0.983452 -2.904965 17 17 17 
1.588652 -0.983452 -2.904965 17 17 17 
1.609468 -0.984615 -2.908402 16 16 16 
1.630332 -0.985782 -2.911849 16 16 16 
1.647337 -0.984615 -2.908402 16 16 16 
1.666272 -0.984615 -2.908402 16 16 16 
1.685207 -0.984615 -2.908402 16 16 16 
1.702128 -0.983452 -2.904965 16 16 16 
1.719008 -0.982290 -2.901535 16 16 16 
1.737898 -0.982290 -2.901535 16 16 16 
1.756789 -0.982290 -2.901535 16 16 16 
1.775679 -0.982290 -2.901535 16 16 16 
1.794569 -0.982290 -2.901535 14 14 14 
0.183592 -0.486517 -1.409983 16 16 16 
0.192771 -0.486517 -1.409983 11 11 11 
0.201951 -0.486517 -1.409983 10 10 10 
0.211251 -0.486797 -1.410792 10 10 10 
0.220436 -0.486797 -1.410792 10 10 10 
0.229621 -0.486797 -1.410792 10 10 10 
0.238806 -0.486797 -1.410792 9 9 9 
0.247849 -0.486517 -1.409983 8 8 8 
0.256734 -0.485960 -1.408367 8 8 8 
0.265598 -0.485404 -1.406754 8 8 8 
0.274600 -0.485126 -1.405950 8 8 8 
0.283591 -0.484848 -1.405146 8 8 8 
0.292571 -0.484571 -1.404343 8 8 8 
0.301714 -0.484571 -1.404343 8 8 8 
0.310857 -0.484571 -1.404343 9 9 9 
0.319817 -0.484295 -1.403541 9 9 9 
0.328767 -0.484018 -1.402740 8 8 8 
0.337514 -0.483466 -1.401140 8 8 8 
0.346636 -0.483466 -1.401140 8 8 8 
0.386651 -0.487917 -1.414039 8 8 8 
0.395857 -0.487917 -1.414039 8 8 8 
0.406467 -0.489607 -1.418938 9 9 9 
0.415945 -0.489890 -1.419757 9 9 9 
0.425188 -0.489890 -1.419757 8 8 8 
0.434431 -0.489890 -1.419757 8 8 8 
0.443674 -0.489890 -1.419757 9 9 9 
0.452917 -0.489890 -1.419757 12 12 12 
0.462161 -0.489890 -1.419757 19 19 19 
0.471132 -0.489607 -1.418938 29 29 29 
0.480370 -0.489607 -1.418938 30 30 30 
0.489607 -0.489607 -1.418938 29 29 29 
0.498845 -0.489607 -1.418938 29 29 29 
0.507497 -0.489043 -1.417301 30 30 30 
0.516427 -0.488761 -1.416484 31 31 31 
0.524439 -0.487637 -1.413226 31 31 31 
0.533333 -0.487356 -1.412414 32 32 32 
0.542217 -0.487076 -1.411603 32 32 32 
0.551724 -0.487356 -1.412414 29 29 29 
0.560920 -0.487356 -1.412414 44 44 44 
0.570115 -0.487356 -1.412414 53 53 53 
0.579310 -0.487356 -1.412414 60 60 60 
0.588168 -0.487076 -1.411603 74 74 74 
0.597701 -0.487356 -1.412414 78 78 78 
1.138462 -0.815385 -2.363077 80 80 80 
1.149425 -0.812261 -2.354023 53 53 53 
1.163636 -0.811483 -2.351770 20 20 20 
1.178947 -0.811483 -2.351770 17 17 17 
1.198847 -0.814601 -2.360807 17 17 17 
1.497630 -1.004739 -2.911849 17 17 17 
1.514793 -1.003550 -2.908402 17 17 17 
1.530106 -1.001181 -2.901535 17 17 17 
1.548996 -1.001181 -2.901535 17 17 17 
1.566038 -1.000000 -2.898113 17 17 17 
1.586777 -1.001181 -2.901535 17 17 17 
1.607565 -1.002364 -2.904965 17 17 17 
1.628402 -1.003550 -2.908402 16 16 16 
1.647337 -1.003550 -2.908402 16 16 16 
1.662338 -1.001181 -2.901535 17 17 17 
1.681228 -1.001181 -2.901535 17 17 17 
1.698113 -1.000000 -2.898113 17 17 17 
1.716981 -1.000000 -2.898113 17 17 17 
1.733804 -0.998822 -2.894700 17 17 17 
1.752650 -0.998822 -2.894700 17 17 17 
1.771496 -0.998822 -2.894700 18 18 18 
1.794569 -1.001181 -2.901535 15 15 15 
0.174312 -0.495413 -1.409174 27 27 27 
0.183486 -0.495413 -1.409174 16 16 16 
0.192661 -0.495413 -1.409174 12 12 12 
0.201951 -0.495697 -1.409983 11 11 11 
0.211251 -0.495982 -1.410792 11 11 11 
0.220436 -0.495982 -1.410792 11 11 11 
0.229753 -0.496267 -1.411603 10 10 10 
0.238806 -0.495982 -1.410792 10 10 10 
0.247991 -0.495982 -1.410792 9 9 9 
0.256881 -0.495413 -1.409174 9 9 9 
0.265598 -0.494562 -1.406754 9 9 9 
0.274600 -0.494279 -1.405950 9 9 9 
0.283591 -0.493997 -1.405146 9 9 9 
0.292571 -0.493714 -1.404343 9 9 9 
0.301714 -0.493714 -1.404343 9 9 9 
0.310857 -0.493714 -1.404343 9 9 9 
0.319817 -0.493432 -1.403541 9 9 9 
0.328767 -0.493151 -1.402740 9 9 9 
0.337514 -0.492588 -1.401140 9 9 9 
0.346636 -0.492588 -1.401140 9 9 9 
0.386429 -0.496837 -1.413226 9 9 9 
0.395630 -0.496837 -1.413226 9 9 9 
0.405063 -0.497123 -1.414039 8 8 8 
0.415225 -0.498270 -1.417301 8 8 8 
0.424942 -0.498845 -1.418938 9 9 9 
0.434180 -0.498845 -1.418938 9 9 9 
0.443418 -0.498845 -1.418938 9 9 9 
0.452656 -0.498845 -1.418938 12 12 12 
0.461894 -0.498845 -1.418938 20 20 20 
0.470860 -0.498557 -1.418119 30 30 30 
0.479815 -0.498270 -1.417301 34 34 34 
0.489043 -0.498270 -1.417301 36 36 36 
0.497696 -0.497696 -1.415668 36 36 36 
0.506329 -0.497123 -1.414039 38 38 38 
0.515239 -0.496837 -1.413226 39 39 39 
0.523837 -0.496267 -1.411603 38 38 38 
0.532721 -0.495982 -1.410792 39 39 39 
0.541595 -0.495697 -1.409983 39 39 39 
0.551091 -0.495982 -1.410792 34 34 34 
0.560276 -0.495982 -1.410792 46 46 46 
0.569460 -0.495982 -1.410792 52 52 52 
0.578645 -0.495982 -1.410792 59 59 59 
0.587830 -0.495982 -1.410792 74 74 74 
0.597358 -0.496267 -1.411603 78 78 78 
1.124158 -0.831569 -2.365351 79 79 79 
1.138462 -0.830769 -2.363077 80 80 80 
1.153846 -0.830769 -2.363077 57 57 57 
1.168108 -0.829971 -2.360807 29 29 29 
1.183477 -0.829971 -2.360807 27 27 27 
1.198847 -0.829971 -2.360807 28 28 28 
1.216554 -0.831569 -2.365351 28 28 28 
1.511216 -1.020071 -2.901535 27 27 27 
1.530106 -1.020071 -2.901535 27 27 27 
1.547170 -1.018868 -2.898113 26 26 26 
1.566038 -1.018868 -2.898113 25 25 25 
1.584906 -1.018868 -2.898113 24 24 24 
1.607565 -1.021277 -2.904965 25 25 25 
1.626478 -1.021277 -2.904965 25 25 25 
1.643448 -1.020071 -2.901535 25 25 25 
1.662338 -1.020071 -2.901535 26 26 26 
1.681228 -1.020071 -2.901535 27 27 27 
1.698113 -1.018868 -2.898113 25 25 25 
1.716981 -1.018868 -2.898113 24 24 24 
1.733804 -1.017668 -2.894700 22 22 22 
1.752650 -1.017668 -2.894700 22 22 22 
1.771496 -1.017668 -2.894700 22 22 22 
1.792453 -1.018868 -2.898113 19 19 19 
0.165138 -0.504587 -1.409174 31 31 31 
0.174312 -0.504587 -1.409174 27 27 27 
0.183486 -0.504587 -1.409174 18 18 18 
0.192661 -0.504587 -1.409174 16 16 16 
0.201951 -0.504877 -1.409983 16 16 16 
0.211251 -0.505166 -1.410792 16 16 16 
0.220436 -0.505166 -1.410792 17 17 17 
0.229753 -0.505457 -1.411603 16 16 16 
0.238943 -0.505457 -1.411603 15 15 15 
0.247991 -0.505166 -1.410792 14 14 14 
0.256881 -0.504587 -1.409174 14 14 14 
0.265598 -0.503721 -1.406754 14 14 14 
0.274600 -0.503433 -1.405950 14 14 14 
0.283591 -0.503145 -1.405146 14 14 14 
0.292571 -0.502857 -1.404343 14 14 14 
0.301714 -0.502857 -1.404343 14 14 14 
0.310680 -0.502570 -1.403541 14 14 14 
0.319635 -0.502283 -1.402740 14 14 14 
0.328392 -0.501710 -1.401140 13 13 13 
0.337322 -0.501424 -1.400342 13 13 13 
0.346636 -0.501710 -1.401140 13 13 13 
0.377228 -0.506038 -1.413226 13 13 13 
0.386429 -0.506038 -1.413226 13 13 13 
0.395630 -0.506038 -1.413226 13 13 13 
0.405063 -0.506329 -1.414039 13 13 13 
0.414269 -0.506329 -1.414039 13 13 13 
0.423719 -0.506621 -1.414853 13 13 13 
0.433679 -0.507497 -1.417301 12 12 12 
0.442907 -0.507497 -1.417301 11 11 11 
0.452134 -0.507497 -1.417301 12 12 12 
0.461361 -0.507497 -1.417301 20 20 20 
0.470588 -0.507497 -1.417301 34 34 34 
0.479539 -0.507205 -1.416484 46 46 46 
0.487917 -0.506329 -1.414039 55 55 55 
0.496552 -0.505747 -1.412414 58 58 58 
0.505457 -0.505457 -1.411603 60 60 60 
0.514351 -0.505166 -1.410792 61 61 61 
0.522936 -0.504587 -1.409174 60 60 60 
0.532110 -0.504587 -1.409174 61 61 61 
0.540974 -0.504298 -1.408367 59 59 59 
0.550143 -0.504298 -1.408367 47 47 47 
0.559312 -0.504298 -1.408367 46 46 46 
0.568807 -0.504587 -1.409174 52 52 52 
0.577982 -0.504587 -1.409174 59 59 59 
0.587156 -0.504587 -1.409174 74 74 74 
0.597015 -0.505166 -1.410792 78 78 78 
1.110897 -0.848602 -2.369913 78 78 78 
1.124158 -0.846968 -2.365351 78 78 78 
1.139557 -0.846968 -2.365351 78 78 78 
1.154957 -0.846968 -2.365351 60 60 60 
1.170356 -0.846968 -2.365351 37 37 37 
1.184615 -0.846154 -2.363077 34 34 34 
1.201155 -0.846968 -2.365351 35 35 35 
1.217726 -0.847784 -2.367630 36 36 36 
1.509434 -1.037736 -2.898113 35 35 35 
1.547170 -1.037736 -2.898113 35 35 35 
1.566038 -1.037736 -2.898113 33 33 33 
1.586777 -1.038961 -2.901535 34 34 34 
1.607565 -1.040189 -2.904965 34 34 34 
1.628402 -1.041420 -2.908402 35 35 35 
1.647337 -1.041420 -2.908402 36 36 36 
1.664303 -1.040189 -2.904965 38 38 38 
1.681228 -1.038961 -2.901535 40 40 40 
1.700118 -1.038961 -2.901535 37 37 37 
1.716981 -1.037736 -2.898113 33 33 33 
1.735849 -1.037736 -2.898113 32 32 32 
1.754717 -1.037736 -2.898113 32 32 32 
1.773585 -1.037736 -2.898113 32 32 32 
1.800948 -1.042654 -2.911849 29 29 29 
0.155963 -0.513761 -1.409174 48 48 48 
0.165138 -0.513761 -1.409174 41 41 41 
0.174312 -0.513761 -1.409174 27 27 27 
0.183486 -0.513761 -1.409174 21 21 21 
0.192661 -0.513761 -1.409174 20 20 20 
0.201951 -0.514056 -1.409983 20 20 20 
0.211251 -0.514351 -1.410792 19 19 19 
0.220436 -0.514351 -1.410792 20 20 20 
0.229753 -0.514647 -1.411603 20 20 20 
0.238943 -0.514647 -1.411603 19 19 19 
0.247849 -0.514056 -1.409983 19 19 19 
0.256881 -0.513761 -1.409174 19 19 19 
0.265598 -0.512879 -1.406754 19 19 19 
0.274600 -0.512586 -1.405950 19 19 19 
0.283591 -0.512293 -1.405146 18 18 18 
0.292571 -0.512000 -1.404343 18 18 18 
0.301370 -0.511416 -1.402740 19 19 19 
0.310325 -0.511124 -1.401940 18 18 18 
0.319088 -0.510541 -1.400342 18 18 18 
0.328018 -0.510251 -1.399544 17 17 17 
0.337130 -0.510251 -1.399544 17 17 17 
0.346241 -0.510251 -1.399544 17 17 17 
0.377228 -0.515239 -1.413226 17 17 17 
0.386207 -0.514943 -1.412414 17 17 17 
0.395402 -0.514943 -1.412414 16 16 16 
0.404598 -0.514943 -1.412414 16 16 16 
0.414031 -0.515239 -1.413226 16 16 16 
0.423232 -0.515239 -1.413226 17 17 17 
0.432681 -0.515535 -1.414039 15 15 15 
0.442651 -0.516427 -1.416484 12 12 12 
0.451873 -0.516427 -1.416484 13 13 13 
0.461095 -0.516427 -1.416484 20 20 20 
0.470046 -0.516129 -1.415668 36 36 36 
0.478711 -0.515535 -1.414039 52 52 52 
0.487356 -0.514943 -1.412414 64 64 64 
0.495697 -0.514056 -1.409983 66 66 66 
0.504587 -0.513761 -1.409174 68 68 68 
0.513761 -0.513761 -1.409174 69 69 69 
0.522636 -0.513467 -1.408367 68 68 68 
0.531196 -0.512879 -1.406754 68 68 68 
0.540355 -0.512879 -1.406754 66 66 66 
0.549199 -0.512586 -1.405950 50 50 50 
0.558352 -0.512586 -1.405950 46 46 46 
0.567831 -0.512879 -1.406754 52 52 52 
0.577320 -0.513173 -1.407560 59 59 59 
0.587156 -0.513761 -1.409174 74 74 74 
1.110897 -0.864031 -2.369913 77 77 77 
1.126326 -0.864031 -2.369913 77 77 77 
1.141755 -0.864031 -2.369913 77 77 77 
1.157184 -0.864031 -2.369913 61 61 61 
1.171484 -0.863198 -2.367630 41 41 41 
1.186898 -0.863198 -2.367630 39 39 39 
1.202312 -0.863198 -2.367630 39 39 39 
1.220077 -0.864865 -2.372201 40 40 40 
1.236715 -0.865700 -2.374493 39 39 39 
1.567887 -1.057851 -2.901535 37 37 37 
1.586777 -1.057851 -2.901535 38 38 38 
1.609468 -1.060355 -2.908402 38 38 38 
1.632266 -1.062871 -2.915303 38 38 38 
1.651246 -1.062871 -2.915303 39 39 39 
1.670225 -1.062871 -2.915303 41 41 41 
1.691211 -1.064133 -2.918765 43 43 43 
1.708185 -1.062871 -2.915303 39 39 39 
1.727165 -1.062871 -2.915303 34 34 34 
1.744076 -1.061611 -2.911849 35 35 35 
1.763033 -1.061611 -2.911849 38 38 38 
1.781991 -1.061611 -2.911849 38 38 38 
1.792453 -1.056604 -2.898113 33 33 33 
0.155963 -0.522936 -1.409174 25 25 25 
0.165138 -0.522936 -1.409174 22 22 22 
0.174312 -0.522936 -1.409174 18 18 18 
0.183486 -0.522936 -1.409174 15 15 15 
0.192661 -0.522936 -1.409174 14 14 14 
0.201835 -0.522936 -1.409174 14 14 14 
0.211130 -0.523236 -1.409983 14 14 14 
0.220436 -0.523536 -1.410792 14 14 14 
0.229753 -0.523837 -1.411603 14 14 14 
0.238943 -0.523837 -1.411603 13 13 13 
0.247849 -0.523236 -1.409983 13 13 13 
0.256734 -0.522636 -1.408367 12 12 12 
0.265446 -0.521739 -1.405950 11 11 11 
0.274443 -0.521441 -1.405146 12 12 12 
0.283429 -0.521143 -1.404343 11 11 11 
0.292404 -0.520845 -1.403541 11 11 11 
0.301198 -0.520251 -1.401940 11 11 11 
0.309972 -0.519658 -1.400342 11 11 11 
0.318907 -0.519362 -1.399544 11 11 11 
0.327832 -0.519067 -1.398748 10 10 10 
0.336938 -0.519067 -1.398748 10 10 10 
0.346044 -0.519067 -1.398748 10 10 10 
0.377012 -0.524138 -1.412414 10 10 10 
0.385763 -0.523536 -1.410792 10 10 10 
0.394948 -0.523536 -1.410792 10 10 10 
0.404365 -0.523837 -1.411603 10 10 10 
0.413555 -0.523837 -1.411603 10 10 10 
0.422503 -0.523536 -1.410792 10 10 10 
0.431440 -0.523236 -1.409983 9 9 9 
0.440873 -0.523536 -1.410792 9 9 9 
0.451093 -0.524741 -1.414039 12 12 12 
0.460299 -0.524741 -1.414039 21 21 21 
0.469235 -0.524439 -1.413226 38 38 38 
0.477886 -0.523837 -1.411603 54 54 54 
0.486239 -0.522936 -1.409174 65 65 65 
0.495413 -0.522936 -1.409174 67 67 67 
0.504298 -0.522636 -1.408367 69 69 69 
0.513173 -0.522337 -1.407560 70 70 70 
0.522038 -0.522038 -1.406754 69 69 69 
0.530892 -0.521739 -1.405950 69 69 69 
0.539737 -0.521441 -1.405146 67 67 67 
0.548571 -0.521143 -1.404343 50 50 50 
0.557714 -0.521143 -1.404343 47 47 47 
0.567181 -0.521441 -1.405146 53 53 53 
0.576659 -0.521739 -1.405950 59 59 59 
0.586483 -0.522337 -1.407560 75 75 75 
1.111969 -0.880309 -2.372201 76 76 76 
1.127413 -0.880309 -2.372201 76 76 76 
1.142857 -0.880309 -2.372201 76 76 76 
1.158301 -0.880309 -2.372201 64 64 64 
1.173745 -0.880309 -2.372201 47 47 47 
1.189189 -0.880309 -2.372201 46 46 46 
1.204633 -0.880309 -2.372201 46 46 46 
1.220077 -0.880309 -2.372201 45 45 45 
1.236715 -0.881159 -2.374493 46 46 46 
1.254598 -0.882865 -2.379090 46 46 46 
1.594306 -1.081851 -2.915303 46 46 46 
1.615202 -1.083135 -2.918765 46 46 46 
1.634204 -1.083135 -2.918765 46 46 46 
1.655172 -1.084423 -2.922235 46 46 46 
1.674197 -1.084423 -2.922235 46 46 46 
1.693222 -1.084423 -2.922235 46 46 46 
1.712247 -1.084423 -2.922235 45 45 45 
1.729216 -1.083135 -2.918765 43 43 43 
1.746145 -1.081851 -2.915303 43 43 43 
1.765125 -1.081851 -2.915303 43 43 43 
1.781991 -1.080569 -2.911849 43 43 43 
1.485826 -0.891496 -2.402346 37 37 37 
0.155963 -0.532110 -1.409174 18 18 18 
0.165138 -0.532110 -1.409174 17 17 17 
0.174312 -0.532110 -1.409174 16 16 16 
0.183486 -0.532110 -1.409174 15 15 15 
0.192661 -0.532110 -1.409174 14 14 14 
0.201835 -0.532110 -1.409174 13 13 13 
0.211130 -0.532415 -1.409983 13 13 13 
0.220436 -0.532721 -1.410792 12 12 12 
0.229621 -0.532721 -1.410792 12 12 12 
0.238806 -0.532721 -1.410792 12 12 12 
0.247849 -0.532415 -1.409983 12 12 12 
0.256734 -0.531805 -1.408367 10 10 10 
0.265446 -0.530892 -1.405950 9 9 9 
0.274443 -0.530589 -1.405146 9 9 9 
0.283591 -0.530589 -1.405146 9 9 9 
0.292571 -0.530286 -1.404343 8 8 8 
0.301370 -0.529680 -1.402740 8 8 8 
0.310148 -0.529076 -1.401140 8 8 8 
0.319088 -0.528775 -1.400342 8 8 8 
0.327832 -0.528173 -1.398748 8 8 8 
0.336938 -0.528173 -1.398748 8 8 8 
0.346636 -0.529076 -1.401140 8 8 8 
0.376363 -0.532415 -1.409983 8 8 8 
0.385542 -0.532415 -1.409983 8 8 8 
0.394722 -0.532415 -1.409983 8 8 8 
0.403901 -0.532415 -1.409983 8 8 8 
0.413081 -0.532415 -1.409983 8 8 8 
0.422260 -0.532415 -1.409983 8 8 8 
0.431193 -0.532110 -1.409174 8 8 8 
0.440367 -0.532110 -1.409174 9 9 9 
0.449799 -0.532415 -1.409983 12 12 12 
0.459506 -0.533027 -1.411603 23 23 23 
0.468696 -0.533027 -1.411603 42 42 42 
0.477064 -0.532110 -1.409174 58 58 58 
0.486239 -0.532110 -1.409174 66 66 66 
0.495129 -0.531805 -1.408367 67 67 67 
0.504009 -0.531501 -1.407560 69 69 69 
0.512879 -0.531196 -1.406754 70 70 70 
0.521739 -0.530892 -1.405950 70 70 70 
0.530589 -0.530589 -1.405146 69 69 69 
0.539429 -0.530286 -1.404343 67 67 67 
0.548258 -0.529983 -1.403541 49 49 49 
0.557396 -0.529983 -1.403541 46 46 46 
0.566857 -0.530286 -1.404343 53 53 53 
0.576329 -0.530589 -1.405146 60 60 60 
0.586148 -0.531196 -1.406754 76 76 76 
1.113043 -0.896618 -2.374493 77 77 77 
1.128502 -0.896618 -2.374493 77 77 77 
1.143961 -0.896618 -2.374493 76 76 76 
1.159420 -0.896618 -2.374493 65 65 65 
1.174879 -0.896618 -2.374493 49 49 49 
1.190338 -0.896618 -2.374493 49 49 49 
1.205797 -0.896618 -2.374493 48 48 48 
1.222437 -0.897485 -2.376789 48 48 48 
1.237911 -0.897485 -2.376789 49 49 49 
1.254598 -0.898354 -2.379090 49 49 49 
1.640048 -1.106079 -2.929202 49 49 49 
1.659118 -1.106079 -2.929202 50 50 50 
1.678188 -1.106079 -2.929202 50 50 50 
1.697259 -1.106079 -2.929202 50 50 50 
1.716329 -1.106079 -2.929202 49 49 49 
1.735399 -1.106079 -2.929202 49 49 49 
1.754470 -1.106079 -2.929202 49 49 49 
1.484375 -0.906250 -2.400000 42 42 42 
0.155963 -0.541284 -1.409174 25 25 25 
0.165138 -0.541284 -1.409174 23 23 23 
0.174312 -0.541284 -1.409174 21 21 21 
0.183486 -0.541284 -1.409174 19 19 19 
0.192661 -0.541284 -1.409174 17 17 17 
0.201951 -0.541595 -1.409983 15 15 15 
0.211130 -0.541595 -1.409983 14 14 14 
0.220310 -0.541595 -1.409983 14 14 14 
0.229621 -0.541906 -1.410792 14 14 14 
0.238806 -0.541906 -1.410792 14 14 14 
0.247849 -0.541595 -1.409983 13 13 13 
0.256734 -0.540974 -1.408367 13 13 13 
0.265446 -0.540046 -1.405950 12 12 12 
0.274443 -0.539737 -1.405146 11 11 11 
0.283591 -0.539737 -1.405146 10 10 10 
0.292739 -0.539737 -1.405146 10 10 10 
0.301714 -0.539429 -1.404343 9 9 9 
0.310502 -0.538813 -1.402740 8 8 8 
0.319270 -0.538198 -1.401140 8 8 8 
0.328392 -0.538198 -1.401140 8 8 8 
0.337514 -0.538198 -1.401140 8 8 8 
0.347230 -0.539120 -1.403541 8 8 8 
0.357388 -0.540664 -1.407560 9 9 9 
0.367183 -0.541595 -1.409983 8 8 8 
0.376363 -0.541595 -1.409983 8 8 8 
0.385542 -0.541595 -1.409983 8 8 8 
0.394722 -0.541595 -1.409983 8 8 8 
0.403901 -0.541595 -1.409983 8 8 8 
0.413081 -0.541595 -1.409983 8 8 8 
0.422018 -0.541284 -1.409174 8 8 8 
0.431193 -0.541284 -1.409174 8 8 8 
0.440367 -0.541284 -1.409174 9 9 9 
0.449541 -0.541284 -1.409174 12 12 12 
0.458716 -0.541284 -1.409174 25 25 25 
0.467890 -0.541284 -1.409174 46 46 46 
0.477064 -0.541284 -1.409174 61 61 61 
0.485682 -0.540664 -1.407560 67 67 67 
0.494562 -0.540355 -1.406754 67 67 67 
0.503721 -0.540355 -1.406754 69 69 69 
0.512586 -0.540046 -1.405950 70 70 70 
0.521441 -0.539737 -1.405146 69 69 69 
0.530286 -0.539429 -1.404343 69 69 69 
0.538813 -0.538813 -1.402740 67 67 67 
0.547945 -0.538813 -1.402740 49 49 49 
0.557396 -0.539120 -1.403541 45 45 45 
0.566533 -0.539120 -1.403541 53 53 53 
0.576000 -0.539429 -1.404343 60 60 60 
1.114120 -0.912959 -2.376789 79 79 79 
1.128502 -0.912077 -2.374493 80 80 80 
1.145068 -0.912959 -2.376789 79 79 79 
1.160542 -0.912959 -2.376789 66 66 66 
1.176015 -0.912959 -2.376789 49 49 49 
1.191489 -0.912959 -2.376789 49 49 49 
1.206963 -0.912959 -2.376789 49 49 49 
1.222437 -0.912959 -2.376789 49 49 49 
1.237911 -0.912959 -2.376789 50 50 50 
1.254598 -0.913843 -2.379090 50 50 50 
1.482927 -0.920976 -2.397659 43 43 43 
0.146789 -0.550459 -1.409174 33 33 33 
0.155963 -0.550459 -1.409174 32 32 32 
0.165138 -0.550459 -1.409174 30 30 30 
0.174312 -0.550459 -1.409174 28 28 28 
0.183486 -0.550459 -1.409174 24 24 24 
0.192661 -0.550459 -1.409174 20 20 20 
0.201951 -0.550775 -1.409983 18 18 18 
0.211130 -0.550775 -1.409983 17 17 17 
0.220310 -0.550775 -1.409983 16 16 16 
0.229621 -0.551091 -1.410792 15 15 15 
0.238806 -0.551091 -1.410792 15 15 15 
0.247849 -0.550775 -1.409983 14 14 14 
0.256881 -0.550459 -1.409174 13 13 13 
0.265750 -0.549828 -1.407560 12 12 12 
0.274600 -0.549199 -1.405950 12 12 12 
0.283753 -0.549199 -1.405950 11 11 11 
0.292906 -0.549199 -1.405950 11 11 11 
0.302060 -0.549199 -1.405950 9 9 9 
0.311035 -0.548885 -1.405146 9 9 9 
0.320000 -0.548571 -1.404343 8 8 8 
0.329143 -0.548571 -1.404343 8 8 8 
0.338286 -0.548571 -1.404343 8 8 8 
0.347826 -0.549199 -1.405950 8 8 8 
0.357388 -0.549828 -1.407560 9 9 9 
0.366972 -0.550459 -1.409174 8 8 8 
0.376363 -0.550775 -1.409983 8 8 8 
0.385542 -0.550775 -1.409983 8 8 8 
0.394722 -0.550775 -1.409983 8 8 8 
0.403901 -0.550775 -1.409983 8 8 8 
0.412844 -0.550459 -1.409174 8 8 8 
0.422018 -0.550459 -1.409174 8 8 8 
0.430946 -0.550143 -1.408367 8 8 8 
0.440115 -0.550143 -1.408367 9 9 9 
0.449026 -0.549828 -1.407560 12 12 12 
0.457928 -0.549513 -1.406754 27 27 27 
0.467086 -0.549513 -1.406754 52 52 52 
0.476245 -0.549513 -1.406754 65 65 65 
0.485404 -0.549513 -1.406754 68 68 68 
0.494279 -0.549199 -1.405950 68 68 68 
0.503145 -0.548885 -1.405146 69 69 69 
0.512293 -0.548885 -1.405146 69 69 69 
0.521143 -0.548571 -1.404343 69 69 69 
0.529680 -0.547945 -1.402740 70 70 70 
0.538198 -0.547320 -1.401140 67 67 67 
0.547320 -0.547320 -1.401140 49 49 49 
0.556442 -0.547320 -1.401140 44 44 44 
0.565564 -0.547320 -1.401140 53 53 53 
0.575671 -0.548258 -1.403541 60 60 60 
1.115198 -0.929332 -2.379090 79 79 79 
1.129594 -0.928433 -2.376789 80 80 80 
1.146176 -0.929332 -2.379090 78 78 78 
1.161665 -0.929332 -2.379090 66 66 66 
1.177154 -0.929332 -2.379090 50 50 50 
1.191489 -0.928433 -2.376789 49 49 49 
1.206963 -0.928433 -2.376789 48 48 48 
1.223621 -0.929332 -2.379090 48 48 48 
1.239109 -0.929332 -2.379090 49 49 49 
1.257032 -0.931135 -2.383705 49 49 49 
1.467317 -0.936585 -2.397659 49 49 49 
1.481481 -0.935673 -2.395322 42 42 42 
0.146789 -0.559633 -1.409174 32 32 32 
0.155963 -0.559633 -1.409174 32 32 32 
0.165138 -0.559633 -1.409174 31 31 31 
0.174312 -0.559633 -1.409174 27 27 27 
0.183486 -0.559633 -1.409174 24 24 24 
0.192661 -0.559633 -1.409174 22 22 22 
0.201951 -0.559954 -1.409983 21 21 21 
0.211130 -0.559954 -1.409983 20 20 20 
0.220310 -0.559954 -1.409983 20 20 20 
0.229621 -0.560276 -1.410792 20 20 20 
0.238806 -0.560276 -1.410792 19 19 19 
0.247849 -0.559954 -1.409983 18 18 18 
0.256881 -0.559633 -1.409174 16 16 16 
0.265750 -0.558992 -1.407560 15 15 15 
0.274914 -0.558992 -1.407560 14 14 14 
0.284078 -0.558992 -1.407560 13 13 13 
0.293242 -0.558992 -1.407560 12 12 12 
0.302406 -0.558992 -1.407560 11 11 11 
0.311748 -0.559312 -1.408367 11 11 11 
0.320917 -0.559312 -1.408367 9 9 9 
0.329897 -0.558992 -1.407560 8 8 8 
0.338867 -0.558672 -1.406754 8 8 8 
0.348025 -0.558672 -1.406754 8 8 8 
0.357593 -0.559312 -1.408367 9 9 9 
0.366972 -0.559633 -1.409174 8 8 8 
0.376363 -0.559954 -1.409983 8 8 8 
0.385763 -0.560276 -1.410792 8 8 8 
0.394722 -0.559954 -1.409983 8 8 8 
0.403901 -0.559954 -1.409983 8 8 8 
0.412844 -0.559633 -1.409174 8 8 8 
0.421777 -0.559312 -1.408367 8 8 8 
0.430699 -0.558992 -1.407560 8 8 8 
0.439863 -0.558992 -1.407560 9 9 9 
0.448513 -0.558352 -1.405950 13 13 13 
0.457666 -0.558352 -1.405950 31 31 31 
0.466286 -0.557714 -1.404343 58 58 58 
0.475429 -0.557714 -1.404343 68 68 68 
0.484295 -0.557396 -1.403541 69 69 69 
0.493714 -0.557714 -1.404343 68 68 68 
0.502857 -0.557714 -1.404343 70 70 70 
0.512000 -0.557714 -1.404343 70 70 70 
0.520845 -0.557396 -1.403541 70 70 70 
0.529076 -0.556442 -1.401140 71 71 71 
0.538198 -0.556442 -1.401140 68 68 68 
0.547009 -0.556125 -1.400342 49 49 49 
0.556125 -0.556125 -1.400342 44 44 44 
0.564920 -0.555809 -1.399544 52 52 52 
0.574686 -0.556442 -1.401140 59 59 59 
1.117362 -0.946654 -2.383705 76 76 76 
1.131783 -0.945736 -2.381395 77 77 77 
1.147287 -0.945736 -2.381395 77 77 77 
1.162791 -0.945736 -2.381395 65 65 65 
1.178295 -0.945736 -2.381395 50 50 50 
1.193798 -0.945736 -2.381395 49 49 49 
1.208132 -0.944821 -2.379090 48 48 48 
1.224806 -0.945736 -2.381395 49 49 49 
1.240310 -0.945736 -2.381395 49 49 49 
1.257032 -0.946654 -2.383705 49 49 49 
1.465887 -0.951267 -2.395322 47 47 47 
1.480039 -0.950341 -2.392989 41 41 41 
0.146789 -0.568807 -1.409174 18 18 18 
0.155963 -0.568807 -1.409174 19 19 19 
0.165138 -0.568807 -1.409174 22 22 22 
0.174312 -0.568807 -1.409174 17 17 17 
0.183486 -0.568807 -1.409174 14 14 14 
0.192661 -0.568807 -1.409174 14 14 14 
0.201835 -0.568807 -1.409174 14 14 14 
0.211130 -0.569134 -1.409983 14 14 14 
0.220310 -0.569134 -1.409983 14 14 14 
0.229621 -0.569460 -1.410792 14 14 14 
0.238806 -0.569460 -1.410792 14 14 14 
0.247849 -0.569134 -1.409983 14 14 14 
0.256881 -0.568807 -1.409174 13 13 13 
0.265750 -0.568156 -1.407560 13 13 13 
0.274914 -0.568156 -1.407560 12 12 12 
0.284241 -0.568481 -1.408367 11 11 11 
0.293410 -0.568481 -1.408367 11 11 11 
0.302752 -0.568807 -1.409174 11 11 11 
0.312106 -0.569134 -1.409983 11 11 11 
0.321285 -0.569134 -1.409983 10 10 10 
0.330275 -0.568807 -1.409174 9 9 9 
0.339255 -0.568481 -1.408367 9 9 9 
0.348424 -0.568481 -1.408367 9 9 9 
0.357798 -0.568807 -1.409174 11 11 11 
0.367183 -0.569134 -1.409983 11 11 11 
0.376795 -0.569788 -1.411603 9 9 9 
0.385985 -0.569788 -1.411603 9 9 9 
0.394948 -0.569460 -1.410792 10 10 10 
0.403901 -0.569134 -1.409983 9 9 9 
0.412844 -0.568807 -1.409174 8 8 8 
0.421535 -0.568156 -1.407560 8 8 8 
0.430699 -0.568156 -1.407560 8 8 8 
0.439359 -0.567506 -1.405950 9 9 9 
0.448256 -0.567181 -1.405146 14 14 14 
0.457143 -0.566857 -1.404343 37 37 37 
0.465753 -0.566210 -1.402740 63 63 63 
0.474344 -0.565564 -1.401140 70 70 70 
0.483191 -0.565242 -1.400342 70 70 70 
0.492308 -0.565242 -1.400342 69 69 69 
0.502570 -0.566533 -1.403541 70 70 70 
0.511708 -0.566533 -1.403541 71 71 71 
0.520548 -0.566210 -1.402740 70 70 70 
0.529076 -0.565564 -1.401140 70 70 70 
0.537585 -0.564920 -1.399544 68 68 68 
0.546386 -0.564599 -1.398748 49 49 49 
0.555492 -0.564599 -1.398748 44 44 44 
0.564599 -0.564599 -1.398748 52 52 52 
0.574359 -0.565242 -1.400342 58 58 58 
1.117362 -0.962173 -2.383705 76 76 76 
1.132881 -0.962173 -2.383705 77 77 77 
1.148400 -0.962173 -2.383705 76 76 76 
1.163918 -0.962173 -2.383705 64 64 64 
1.179437 -0.962173 -2.383705 49 49 49 
1.193798 -0.961240 -2.381395 48 48 48 
1.209302 -0.961240 -2.381395 48 48 48 
1.224806 -0.961240 -2.381395 49 49 49 
1.240310 -0.961240 -2.381395 49 49 49 
1.258252 -0.963107 -2.386019 49 49 49 
1.792610 -1.182360 -2.929202 42 42 42 
1.480039 -0.965920 -2.392989 37 37 37 
0.146789 -0.577982 -1.409174 19 19 19 
0.155963 -0.577982 -1.409174 19 19 19 
0.165138 -0.577982 -1.409174 31 31 31 
0.174312 -0.577982 -1.409174 41 41 41 
0.183486 -0.577982 -1.409174 29 29 29 
0.192661 -0.577982 -1.409174 24 24 24 
0.201835 -0.577982 -1.409174 24 24 24 
0.211009 -0.577982 -1.409174 23 23 23 
0.220310 -0.578313 -1.409983 22 22 22 
0.229489 -0.578313 -1.409983 22 22 22 
0.238669 -0.578313 -1.409983 21 21 21 
0.247849 -0.578313 -1.409983 21 21 21 
0.256881 -0.577982 -1.409174 21 21 21 
0.265903 -0.577650 -1.408367 20 20 20 
0.275072 -0.577650 -1.408367 19 19 19 
0.284404 -0.577982 -1.409174 17 17 17 
0.293578 -0.577982 -1.409174 16 16 16 
0.303100 -0.578645 -1.410792 16 16 16 
0.312285 -0.578645 -1.410792 16 16 16 
0.321470 -0.578645 -1.410792 15 15 15 
0.330465 -0.578313 -1.409983 15 15 15 
0.339450 -0.577982 -1.409174 16 16 16 
0.348624 -0.577982 -1.409174 16 16 16 
0.357798 -0.577982 -1.409174 16 16 16 
0.367605 -0.578978 -1.411603 15 15 15 
0.376795 -0.578978 -1.411603 14 14 14 
0.385985 -0.578978 -1.411603 13 13 13 
0.394948 -0.578645 -1.410792 13 13 13 
0.403901 -0.578313 -1.409983 10 10 10 
0.412844 -0.577982 -1.409174 8 8 8 
0.421535 -0.577320 -1.407560 8 8 8 
0.430206 -0.576659 -1.405950 8 8 8 
0.439108 -0.576329 -1.405146 9 9 9 
0.447744 -0.575671 -1.403541 16 16 16 
0.456361 -0.575014 -1.401940 44 44 44 
0.464957 -0.574359 -1.400342 67 67 67 
0.473804 -0.574032 -1.399544 70 70 70 
0.482916 -0.574032 -1.399544 70 70 70 
0.492027 -0.574032 -1.399544 69 69 69 
0.501424 -0.574359 -1.400342 69 69 69 
0.511416 -0.575342 -1.402740 70 70 70 
0.520548 -0.575342 -1.402740 70 70 70 
0.529378 -0.575014 -1.401940 70 70 70 
0.537585 -0.574032 -1.399544 68 68 68 
0.546075 -0.573379 -1.397952 49 49 49 
0.555176 -0.573379 -1.397952 43 43 43 
0.564278 -0.573379 -1.397952 51 51 51 
1.117362 -0.977692 -2.383705 77 77 77 
1.132881 -0.977692 -2.383705 77 77 77 
1.148400 -0.977692 -2.383705 75 75 75 
1.163918 -0.977692 -2.383705 63 63 63 
1.179437 -0.977692 -2.383705 49 49 49 
1.193798 -0.976744 -2.381395 48 48 48 
1.209302 -0.976744 -2.381395 48 48 48 
1.224806 -0.976744 -2.381395 48 48 48 
1.241513 -0.977692 -2.383705 49 49 49 
1.569740 -1.191489 -2.904965 49 49 49 
1.592417 -1.194313 -2.911849 48 48 48 
1.615202 -1.197150 -2.918765 45 45 45 
1.634204 -1.197150 -2.918765 47 47 47 
1.653207 -1.197150 -2.918765 47 47 47 
1.674197 -1.198573 -2.922235 45 45 45 
1.695238 -1.200000 -2.925714 47 47 47 
1.714286 -1.200000 -2.925714 47 47 47 
1.733333 -1.200000 -2.925714 47 47 47 
1.752381 -1.200000 -2.925714 47 47 47 
1.773540 -1.201430 -2.929202 42 42 42 
1.792610 -1.201430 -2.929202 40 40 40 
1.811681 -1.201430 -2.929202 33 33 33 
0.146789 -0.587156 -1.409174 34 34 34 
0.155963 -0.587156 -1.409174 32 32 32 
0.165043 -0.586819 -1.408367 39 39 39 
0.174312 -0.587156 -1.409174 58 58 58 
0.183486 -0.587156 -1.409174 43 43 43 
0.192661 -0.587156 -1.409174 34 34 34 
0.201835 -0.587156 -1.409174 34 34 34 
0.211009 -0.587156 -1.409174 33 33 33 
0.220183 -0.587156 -1.409174 32 32 32 
0.229489 -0.587493 -1.409983 32 32 32 
0.238669 -0.587493 -1.409983 32 32 32 
0.247849 -0.587493 -1.409983 31 31 31 
0.256881 -0.587156 -1.409174 31 31 31 
0.266055 -0.587156 -1.409174 31 31 31 
0.275229 -0.587156 -1.409174 31 31 31 
0.284404 -0.587156 -1.409174 31 31 31 
0.293915 -0.587830 -1.410792 31 31 31 
0.303274 -0.588168 -1.411603 30 30 30 
0.312464 -0.588168 -1.411603 29 29 29 
0.321654 -0.588168 -1.411603 28 28 28 
0.330654 -0.587830 -1.410792 28 28 28 
0.339644 -0.587493 -1.409983 28 28 28 
0.348824 -0.587493 -1.409983 27 27 27 
0.358209 -0.587830 -1.410792 26 26 26 
0.367816 -0.588506 -1.412414 25 25 25 
0.377012 -0.588506 -1.412414 25 25 25 
0.386207 -0.588506 -1.412414 23 23 23 
0.395175 -0.588168 -1.411603 16 16 16 
0.403901 -0.587493 -1.409983 10 10 10 
0.412844 -0.587156 -1.409174 8 8 8 
0.421053 -0.585812 -1.405950 8 8 8 
0.429960 -0.585477 -1.405146 8 8 8 
0.438607 -0.584809 -1.403541 9 9 9 
0.446978 -0.583808 -1.401140 19 19 19 
0.455840 -0.583476 -1.400342 51 51 51 
0.464692 -0.583144 -1.399544 70 70 70 
0.473534 -0.582812 -1.398748 70 70 70 
0.482641 -0.582812 -1.398748 69 69 69 
0.491747 -0.582812 -1.398748 68 68 68 
0.500854 -0.582812 -1.398748 69 69 69 
0.510832 -0.583808 -1.401140 70 70 70 
0.520548 -0.584475 -1.402740 69 69 69 
1.132881 -0.993210 -2.383705 76 76 76 
1.148400 -0.993210 -2.383705 75 75 75 
1.163918 -0.993210 -2.383705 63 63 63 
1.178295 -0.992248 -2.381395 48 48 48 
1.192643 -0.991288 -2.379090 47 47 47 
1.206963 -0.990329 -2.376789 47 47 47 
1.223621 -0.991288 -2.379090 47 47 47 
1.554502 -1.213270 -2.911849 47 47 47 
1.569740 -1.210402 -2.904965 47 47 47 
1.590533 -1.211834 -2.908402 47 47 47 
1.611374 -1.213270 -2.911849 46 46 46 
1.632266 -1.214709 -2.915303 48 48 48 
1.653207 -1.216152 -2.918765 48 48 48 
1.672209 -1.216152 -2.918765 46 46 46 
1.695238 -1.219048 -2.925714 46 46 46 
1.714286 -1.219048 -2.925714 47 47 47 
1.733333 -1.219048 -2.925714 46 46 46 
1.752381 -1.219048 -2.925714 46 46 46 
1.773540 -1.220501 -2.929202 43 43 43 
1.792610 -1.220501 -2.929202 42 42 42 
1.813843 -1.221957 -2.932697 35 35 35 
0.146789 -0.596330 -1.409174 46 46 46 
0.155874 -0.595989 -1.408367 44 44 44 
0.165043 -0.595989 -1.408367 43 43 43 
0.174212 -0.595989 -1.408367 60 60 60 
0.183381 -0.595989 -1.408367 44 44 44 
0.192550 -0.595989 -1.408367 35 35 35 
0.201719 -0.595989 -1.408367 35 35 35 
0.211009 -0.596330 -1.409174 34 34 34 
0.220183 -0.596330 -1.409174 34 34 34 
0.229358 -0.596330 -1.409174 33 33 33 
0.238532 -0.596330 -1.409174 33 33 33 
0.247706 -0.596330 -1.409174 34 34 34 
0.256881 -0.596330 -1.409174 33 33 33 
0.266055 -0.596330 -1.409174 33 33 33 
0.275229 -0.596330 -1.409174 34 34 34 
0.284730 -0.597015 -1.410792 38 38 38 
0.294084 -0.597358 -1.411603 39 39 39 
0.303448 -0.597701 -1.412414 36 36 36 
0.312644 -0.597701 -1.412414 33 33 33 
0.321654 -0.597358 -1.411603 32 32 32 
0.330654 -0.597015 -1.410792 31 31 31 
0.339644 -0.596672 -1.409983 31 31 31 
0.348824 -0.596672 -1.409983 29 29 29 
0.358415 -0.597358 -1.411603 29 29 29 
0.368239 -0.598389 -1.414039 29 29 29 
0.377228 -0.598045 -1.413226 28 28 28 
0.386429 -0.598045 -1.413226 25 25 25 
0.395175 -0.597358 -1.411603 17 17 17 
0.403670 -0.596330 -1.409174 10 10 10 
0.412607 -0.595989 -1.408367 8 8 8 
0.421053 -0.594966 -1.405950 8 8 8 
0.429714 -0.594286 -1.404343 8 8 8 
0.437856 -0.592930 -1.401140 10 10 10 
0.446724 -0.592593 -1.400342 23 23 23 
0.455322 -0.591918 -1.398748 56 56 56 
0.464164 -0.591581 -1.397952 71 71 71 
0.473265 -0.591581 -1.397952 71 71 71 
0.482366 -0.591581 -1.397952 69 69 69 
0.491468 -0.591581 -1.397952 68 68 68 
0.500284 -0.591245 -1.397158 69 69 69 
0.509960 -0.591918 -1.398748 70 70 70 
0.519954 -0.592930 -1.401140 69 69 69 
1.148400 -1.008729 -2.383705 77 77 77 
1.163918 -1.008729 -2.383705 64 64 64 
1.178295 -1.007752 -2.381395 48 48 48 
1.192643 -1.006776 -2.379090 47 47 47 
1.206963 -1.005803 -2.376789 46 46 46 
1.510155 -1.242533 -2.936201 47 47 47 
1.548387 -1.242533 -2.936201 47 47 47 
1.554502 -1.232227 -2.911849 46 46 46 
1.571598 -1.230769 -2.908402 46 46 46 
1.590533 -1.230769 -2.908402 47 47 47 
1.613286 -1.233689 -2.915303 48 48 48 
1.634204 -1.235154 -2.918765 48 48 48 
1.653207 -1.235154 -2.918765 47 47 47 
1.676190 -1.238095 -2.925714 47 47 47 
1.695238 -1.238095 -2.925714 47 47 47 
1.716329 -1.239571 -2.929202 46 46 46 
1.735399 -1.239571 -2.929202 46 46 46 
1.754470 -1.239571 -2.929202 47 47 47 
1.775656 -1.241050 -2.932697 46 46 46 
1.794749 -1.241050 -2.932697 45 45 45 
1.813843 -1.241050 -2.932697 39 39 39 
0.146705 -0.605158 -1.408367 36 36 36 
0.155874 -0.605158 -1.408367 41 41 41 
0.165043 -0.605158 -1.408367 43 43 43 
0.174212 -0.605158 -1.408367 60 60 60 
0.183276 -0.604811 -1.407560 44 44 44 
0.192440 -0.604811 -1.407560 35 35 35 
0.201719 -0.605158 -1.408367 34 34 34 
0.210888 -0.605158 -1.408367 33 33 33 
0.220183 -0.605505 -1.409174 33 33 33 
0.229358 -0.605505 -1.409174 33 33 33 
0.238532 -0.605505 -1.409174 33 33 33 
0.247706 -0.605505 -1.409174 34 34 34 
0.256881 -0.605505 -1.409174 34 34 34 
0.266055 -0.605505 -1.409174 34 34 34 
0.275229 -0.605505 -1.409174 37 37 37 
0.284730 -0.606200 -1.410792 48 48 48 
0.294253 -0.606897 -1.412414 53 53 53 
0.303448 -0.606897 -1.412414 44 44 44 
0.312644 -0.606897 -1.412414 35 35 35 
0.321654 -0.606548 -1.411603 33 33 33 
0.330844 -0.606548 -1.411603 31 31 31 
0.339839 -0.606200 -1.410792 30 30 30 
0.349024 -0.606200 -1.410792 29 29 29 
0.358621 -0.606897 -1.412414 29 29 29 
0.368451 -0.607945 -1.414853 29 29 29 
0.377445 -0.607595 -1.414039 28 28 28 
0.386429 -0.607246 -1.413226 25 25 25 
0.395175 -0.606548 -1.411603 17 17 17 
0.403670 -0.605505 -1.409174 10 10 10 
0.412607 -0.605158 -1.408367 8 8 8 
0.420812 -0.603774 -1.405146 8 8 8 
0.429469 -0.603084 -1.403541 8 8 8 
0.437607 -0.601709 -1.400342 10 10 10 
0.446215 -0.601024 -1.398748 28 28 28 
0.455063 -0.600683 -1.397952 60 60 60 
0.463900 -0.600341 -1.397158 71 71 71 
0.472727 -0.600000 -1.396364 71 71 71 
0.481818 -0.600000 -1.396364 70 70 70 
0.490909 -0.600000 -1.396364 68 68 68 
0.500000 -0.600000 -1.396364 69 69 69 
0.509380 -0.600341 -1.397158 70 70 70 
1.513772 -1.264671 -2.943234 46 46 46 
1.529271 -1.261649 -2.936201 46 46 46 
1.548387 -1.261649 -2.936201 46 46 46 
1.556346 -1.252669 -2.915303 46 46 46 
1.573460 -1.251185 -2.911849 46 46 46 
1.592417 -1.251185 -2.911849 47 47 47 
1.613286 -1.252669 -2.915303 47 47 47 
1.634204 -1.254157 -2.918765 47 47 47 
1.655172 -1.255648 -2.922235 47 47 47 
1.676190 -1.257143 -2.925714 47 47 47 
1.697259 -1.258641 -2.929202 46 46 46 
1.716329 -1.258641 -2.929202 46 46 46 
1.735399 -1.258641 -2.929202 46 46 46 
1.756563 -1.260143 -2.932697 47 47 47 
1.775656 -1.260143 -2.932697 47 47 47 
1.794749 -1.260143 -2.932697 46 46 46 
1.813843 -1.260143 -2.932697 40 40 40 
0.146705 -0.614327 -1.408367 23 23 23 
0.155785 -0.613975 -1.407560 30 30 30 
0.164948 -0.613975 -1.407560 41 41 41 
0.174112 -0.613975 -1.407560 60 60 60 
0.183276 -0.613975 -1.407560 44 44 44 
0.192440 -0.613975 -1.407560 35 35 35 
0.201604 -0.613975 -1.407560 33 33 33 
0.210767 -0.613975 -1.407560 33 33 33 
0.220057 -0.614327 -1.408367 34 34 34 
0.229358 -0.614679 -1.409174 34 34 34 
0.238532 -0.614679 -1.409174 33 33 33 
0.247706 -0.614679 -1.409174 34 34 34 
0.256881 -0.614679 -1.409174 34 34 34 
0.266055 -0.614679 -1.409174 33 33 33 
0.275229 -0.614679 -1.409174 37 37 37 
0.284567 -0.615032 -1.409983 56 56 56 
0.294253 -0.616092 -1.412414 71 71 71 
0.303448 -0.616092 -1.412414 61 61 61 
0.312644 -0.616092 -1.412414 46 46 46 
0.321839 -0.616092 -1.412414 36 36 36 
0.330844 -0.615738 -1.411603 31 31 31 
0.339839 -0.615385 -1.410792 30 30 30 
0.349024 -0.615385 -1.410792 30 30 30 
0.359033 -0.616801 -1.414039 29 29 29 
0.368664 -0.617512 -1.415668 29 29 29 
0.377880 -0.617512 -1.415668 28 28 28 
0.386429 -0.616446 -1.413226 25 25 25 
0.395175 -0.615738 -1.411603 18 18 18 
0.403670 -0.614679 -1.409174 10 10 10 
0.412371 -0.613975 -1.407560 8 8 8 
0.420571 -0.612571 -1.404343 8 8 8 
0.428979 -0.611523 -1.401940 8 8 8 
0.437358 -0.610478 -1.399544 11 11 11 
0.445961 -0.609784 -1.397952 31 31 31 
0.455063 -0.609784 -1.397952 61 61 61 
0.463636 -0.609091 -1.396364 70 70 70 
0.472727 -0.609091 -1.396364 70 70 70 
0.481818 -0.609091 -1.396364 70 70 70 
0.490909 -0.609091 -1.396364 68 68 68 
0.500000 -0.609091 -1.396364 69 69 69 
0.509091 -0.609091 -1.396364 70 70 70 
1.513772 -1.283832 -2.943234 46 46 46 
1.529271 -1.280765 -2.936201 46 46 46 
1.548387 -1.280765 -2.936201 47 47 47 
1.558195 -1.273159 -2.918765 47 47 47 
1.573460 -1.270142 -2.911849 47 47 47 
1.592417 -1.270142 -2.911849 46 46 46 
